ply
format ascii 1.0
element vertex 1237
property float x
property float y
property float z
property uchar red
property uchar green
property uchar blue
end_header
 9.9486 9.98233 1.67835   0   0 255
10.3278 10.0981 1.38658   0   0 255
  1.74391   10.2532 -0.993135   0   0 255
-9.6331 9.73955 6.75686   0   0 255
 5.30812   9.2091 -4.16277   0   0 255
-0.764733   10.3118   1.91565   0   0 255
-8.47794  9.77888  7.05018   0   0 255
 -7.7229  9.53973 -7.13454   0   0 255
-7.44153  9.45181   10.405   0   0 255
-5.08923  10.4393 -7.45151   0   0 255
-4.9918  10.374 4.33087   0   0 255
4.07376 10.3432 2.11979   0   0 255
-0.194375   10.1885   4.65644   0   0 255
-8.25541  10.4916 -1.19127   0   0 255
0.857084  10.1653  2.38439   0   0 255
 5.36668  9.86366 -7.23826   0   0 255
-5.32923  9.35744  11.3315   0   0 255
9.65234 9.90958 6.48517   0   0 255
 7.14851  9.80535 -1.83707   0   0 255
-4.70063  10.1871 -8.33745   0   0 255
-0.464915   10.3496 -0.559136   0   0 255
1.09416 9.61572 4.55757   0   0 255
0.0425744   9.77163  -3.82731   0   0 255
 7.5851 10.3463   7.519   0   0 255
2.21825 9.85131 1.42705   0   0 255
6.08416 9.83923  1.6861   0   0 255
 5.07924  10.9041 0.818657   0   0 255
0.93603 9.95302 0.38046   0   0 255
 -10.085   9.3172 -4.95166   0   0 255
 9.70148  9.92508 -1.62237   0   0 255
 0.79418  9.84359 -4.42047   0   0 255
 3.62534  9.89463 -2.29278   0   0 255
 8.11657  10.5914 -7.22272   0   0 255
 4.15028  9.60307 -7.04673   0   0 255
 -6.41587   10.1932 -0.361332   0   0 255
  8.5158  10.3991 -2.40062   0   0 255
-0.112304   10.5905 0.0483536   0   0 255
-9.39159  9.68709  4.33318   0   0 255
 6.40967  10.3261 0.776499   0   0 255
 4.08059  10.6674 -7.37556   0   0 255
-0.882292   10.0122  -4.83678   0   0 255
-7.38017  9.81046  2.34745   0   0 255
9.01669 9.18412 8.47889   0   0 255
 9.42369  10.3577 -2.32628   0   0 255
-3.73168  10.2027  3.64894   0   0 255
9.93612 9.72259 5.16281   0   0 255
 6.9796 10.2856 -6.3402   0   0 255
1.50017 10.0317 3.10558   0   0 255
-5.84296  9.86891  10.4101   0   0 255
-9.38663  10.4467 -5.89968   0   0 255
-10.1847  10.1696  7.08259   0   0 255
-8.46388   11.034 -7.73745   0   0 255
0.536538  9.99611  1.02617   0   0 255
5.43933 10.5062 6.00657   0   0 255
-1.17403   9.8912 -4.47715   0   0 255
-10.6283  9.45796  2.83831   0   0 255
0.61316  10.164 -4.3958   0   0 255
-8.26166   9.3018  0.37052   0   0 255
-9.57421  8.95475  4.83085   0   0 255
6.77613 9.81918 2.85196   0   0 255
6.24069 9.38704 3.71375   0   0 255
9.85867 8.82779 8.51467   0   0 255
-1.89415  10.0631 -3.37268   0   0 255
  9.43656   10.3755 -0.866839   0   0 255
  7.1729   9.8593 -3.81483   0   0 255
-10.4777  9.74482  5.21718   0   0 255
  7.1846  10.3814 -5.93462   0   0 255
 9.05171  9.19794 -1.95757   0   0 255
0.860516  9.61895  5.03113   0   0 255
-2.75659  10.7904 0.881066   0   0 255
-8.24145  9.94279 -7.44873   0   0 255
-0.93425  9.95974 -4.17882   0   0 255
 6.66334  10.3488 -3.29007   0   0 255
-5.95573  10.5755 -1.72306   0   0 255
9.30692 9.51649 3.38317   0   0 255
2.38197 10.2857 1.72515   0   0 255
 1.64192  10.0648 -4.95779   0   0 255
-9.90776  9.47767 -3.51139   0   0 255
-8.27958  9.54593 -6.46302   0   0 255
-5.26839  8.20424  10.9658   0   0 255
 -6.55263   9.76266 -0.817666   0   0 255
-3.66613  10.6188  1.45247   0   0 255
 6.47692  10.2179 -2.00863   0   0 255
0.31392 10.3858  5.4134   0   0 255
-8.93072  9.53349  4.95456   0   0 255
9.87172 8.75023 6.24433   0   0 255
-2.77987  9.70138 -8.04121   0   0 255
8.04143 10.2174  7.7029   0   0 255
 8.73317   9.7387 -4.02887   0   0 255
4.70252 9.82797 -7.7712   0   0 255
 8.01194  10.0481 -1.53512   0   0 255
-1.39889  10.1274  4.27676   0   0 255
 1.11481  10.2461 -2.32252   0   0 255
-10.3564  10.6765 -7.70746   0   0 255
0.218289  9.95341 -6.19625   0   0 255
 10.1029  10.2451 -3.54808   0   0 255
8.31836 9.81586 5.49117   0   0 255
 9.76465   10.536 -6.84266   0   0 255
-1.55935  9.62841 -3.05058   0   0 255
0.867717  10.6542  1.10071   0   0 255
 7.22216  9.71368 0.997117   0   0 255
3.62066 10.3806 7.76975   0   0 255
4.10639 9.47537 7.57624   0   0 255
-0.166542   9.39762  -7.07275   0   0 255
-5.14858   9.7019 -5.69499   0   0 255
 3.67331  10.7377 -3.86407   0   0 255
-1.84682   10.815  1.65668   0   0 255
5.93521 10.3988 6.75181   0   0 255
-5.34439  9.78716  4.45299   0   0 255
 2.01934  10.5211 -1.30713   0   0 255
-8.86161  9.88735 -8.58876   0   0 255
  4.6949  10.6058 -6.39073   0   0 255
-10.2587  10.0617 0.869952   0   0 255
 9.77345  9.81597 -6.14736   0   0 255
8.72693 9.56103 -3.0388   0   0 255
1.67527 8.45107 10.7076   0   0 255
-7.32333  10.0319  1.98213   0   0 255
0.497806  10.0314 -4.03351   0   0 255
-6.84309  9.29313  4.95839   0   0 255
-9.28867  9.73338 -7.22718   0   0 255
-1.22734  9.53838  3.23569   0   0 255
 4.73392  9.40126 -2.27953   0   0 255
-9.21389  9.55685 -3.49743   0   0 255
9.11478 9.89495  4.2981   0   0 255
 1.90098  10.3301 -8.11602   0   0 255
  9.5193  9.96858 -3.32224   0   0 255
-1.73668  8.88362  5.11451   0   0 255
 -2.42635   9.28104 -0.451238   0   0 255
-4.24031  9.73538  2.82207   0   0 255
 -2.25467   9.78092 -0.690527   0   0 255
5.01974 10.5278 4.48726   0   0 255
 9.32985  9.21111 -2.67574   0   0 255
 6.88123  9.30539 -3.25716   0   0 255
-8.78202  10.1758 -5.80306   0   0 255
-8.50577  9.80355  1.30038   0   0 255
 8.63409  9.54779 -2.20785   0   0 255
 9.37907  10.0259 -5.86521   0   0 255
-0.496387    9.9226  -3.37404   0   0 255
-5.24923  9.59485  4.70457   0   0 255
-5.34927  9.89166 -5.54518   0   0 255
-10.2237  9.72059  -3.9462   0   0 255
0.795518  9.96469  2.78036   0   0 255
10.0014 9.20195 3.99478   0   0 255
-6.62551  10.2019 -1.45961   0   0 255
0.335606  9.48184 -4.20493   0   0 255
-6.32362    10.14 -2.78917   0   0 255
-5.15441   10.502   5.3171   0   0 255
-9.96509  8.94374  6.74691   0   0 255
-9.6467 9.26972 4.72449   0   0 255
 9.8987 9.39062 -1.9753   0   0 255
-4.87326   9.9997 0.608882   0   0 255
 -8.4328  9.73627 -4.51704   0   0 255
 4.75438   10.774 -2.51149   0   0 255
  -3.8282   10.2775 0.0830872   0   0 255
10.0661 9.29336 4.15131   0   0 255
-9.87958  9.03017  6.51541   0   0 255
-0.593985   10.1435 0.0826457   0   0 255
-6.17219  9.65864 -1.14234   0   0 255
-9.00444  10.0913  5.71251   0   0 255
-4.55401  9.55709  -1.7361   0   0 255
-2.88644  10.0379 -2.66119   0   0 255
3.50616 10.2475 2.83804   0   0 255
-7.3174 9.55482 -1.0994   0   0 255
 6.40384   9.7991 -2.01081   0   0 255
5.95988  8.9853 6.68202   0   0 255
-7.2721 9.49091 3.14174   0   0 255
-5.56814  10.0563   2.7156   0   0 255
3.25256 8.88143 2.50825   0   0 255
-6.90456  9.16619  11.2424   0   0 255
-5.46156  9.52954  -2.6909   0   0 255
 10.3682  10.5086 -4.56258   0   0 255
-1.06221  10.2912 -3.14798   0   0 255
9.23195 9.45646  6.6609   0   0 255
0.794051  9.96297  1.31285   0   0 255
-9.51574  9.08047 -1.37165   0   0 255
-9.33668  8.46856   10.017   0   0 255
-3.32364  10.1562 -3.35994   0   0 255
7.80261 10.4054 1.22552   0   0 255
-5.02689  10.2307 -5.55473   0   0 255
 7.9661 10.2637  4.3726   0   0 255
6.50026 10.3834 2.85458   0   0 255
 4.42081  10.2503 -2.04972   0   0 255
0.663678  10.3005  4.55095   0   0 255
-2.23916  10.6341 -1.30585   0   0 255
-3.07437  9.24017 -1.41178   0   0 255
-7.31485  9.67674 -3.48482   0   0 255
-9.29445   10.021 -2.65755   0   0 255
 -8.76695   10.1444 -0.869466   0   0 255
-4.87157  9.49087 -4.58795   0   0 255
-0.742865   9.40009   -2.7894   0   0 255
-8.53539  8.75158  2.51594   0   0 255
-10.5316  8.45472  5.00105   0   0 255
0.836696  10.0595 -1.98114   0   0 255
  6.5808  9.87504 -4.66619   0   0 255
-2.48649  10.0078   1.2851   0   0 255
 6.48284  10.4192 -7.07247   0   0 255
-5.95779  9.56515  7.77766   0   0 255
-8.20664  9.69775  5.16682   0   0 255
-9.53662  9.66332  10.6811   0   0 255
-3.42009   9.9369  3.16034   0   0 255
-3.81926  9.95775 -6.43626   0   0 255
 6.05553   9.9956 -7.28213   0   0 255
1.97601 9.67892 10.8575   0   0 255
4.25035 10.0374  1.0707   0   0 255
-3.68551  10.0817    5.292   0   0 255
-1.05733  9.76589  7.13737   0   0 255
 3.33121  10.1222 -5.05061   0   0 255
10.9697 8.55492 7.66731   0   0 255
-9.26162  9.35021  4.35629   0   0 255
7.05935 10.4179 8.11094   0   0 255
 2.18822  9.64352 -8.10961   0   0 255
3.10879 10.2742 8.13007   0   0 255
-3.25118  9.13764  5.03282   0   0 255
0.406143  10.7307 -0.50498   0   0 255
 9.09661  9.98187 -2.08057   0   0 255
-5.51185  9.54032  6.28949   0   0 255
9.99389 10.1566   2.611   0   0 255
-0.0382142    10.1828   0.911832   0   0 255
8.66669 9.53236 4.68519   0   0 255
 0.65225  9.49237 -5.73682   0   0 255
  3.49643   10.0333 -0.300271   0   0 255
5.77772 9.69904 7.96896   0   0 255
 9.7126 9.99444 2.11615   0   0 255
 6.37758  9.38307 -6.78176   0   0 255
   -8.166   10.5043 -0.578347   0   0 255
-10.0118  10.5255 -8.06478   0   0 255
5.85179 9.61608 6.58414   0   0 255
 2.93947  9.43589 -5.62431   0   0 255
-9.06559  9.71097 -2.90262   0   0 255
4.28671 9.31082  3.0181   0   0 255
-9.96589  10.3532  6.14087   0   0 255
-5.63479  10.0249  5.03608   0   0 255
-7.84734  9.58505  3.82342   0   0 255
-5.83576   9.7321  5.81288   0   0 255
-9.7477 9.93874  4.8159   0   0 255
-4.9364 9.51549  5.1673   0   0 255
 5.68543  10.3208 -5.80989   0   0 255
9.96675 9.10151   7.329   0   0 255
 -10.6994   9.43418 -0.925753   0   0 255
0.883399  10.0861 -5.42523   0   0 255
-9.49497  8.84227  3.15272   0   0 255
 5.0935 9.80616  3.0142   0   0 255
 1.90615  11.1756 -4.24488   0   0 255
9.07123 9.55942 6.84714   0   0 255
10.2814 10.2535 7.28094   0   0 255
0.393084  10.3089 -4.37083   0   0 255
 7.4333 9.80376 7.95153   0   0 255
-7.28679  10.4428 -8.00741   0   0 255
9.81211 9.42757 2.16379   0   0 255
-10.4182  8.92547 -3.02884   0   0 255
  1.1123  10.2521 -3.33893   0   0 255
-1.90249  10.1494  1.33039   0   0 255
-2.34688  9.54023   4.6713   0   0 255
6.45765 9.72184 4.17416   0   0 255
7.45476 9.39665 5.98264   0   0 255
-0.545905   9.76844  -2.95407   0   0 255
 -7.2206  9.55363 -2.06069   0   0 255
4.30297 10.1335 4.00572   0   0 255
-4.50463  9.59387 -2.61852   0   0 255
-2.22941  9.94795  2.02316   0   0 255
6.65148 8.88515  4.6438   0   0 255
10.2829 9.59839 4.18734   0   0 255
 2.66221  9.72082 -3.96542   0   0 255
-10.0897  9.63037  -1.2391   0   0 255
 4.80795  9.81558 -6.97752   0   0 255
-7.27628  9.85243 -3.16403   0   0 255
10.4777 9.41029 8.63339   0   0 255
0.889279    10.21 -5.65183   0   0 255
-10.1486  8.90406 -3.29858   0   0 255
-0.0279598    9.43492    7.16769   0   0 255
6.84823 9.99989 4.10197   0   0 255
8.18204 9.86294 1.45489   0   0 255
7.80158 9.86445 8.31829   0   0 255
  8.15587   11.1536 -0.388218   0   0 255
9.06443 10.3153 6.21105   0   0 255
 7.8313 9.51687 8.15948   0   0 255
-9.92099  9.67737  0.11044   0   0 255
 5.74259  9.63709 -4.69922   0   0 255
4.94568 10.1672 7.17318   0   0 255
-1.76302  10.1684  5.62739   0   0 255
-3.53256  9.36673  4.94409   0   0 255
 -6.84778   10.0217 -0.238144   0   0 255
-10.6901  9.17655  2.36461   0   0 255
  4.5238  10.1939 -5.45326   0   0 255
-6.88458  9.28681 -6.38291   0   0 255
-3.02712  11.1879  -4.2705   0   0 255
7.44278 10.2549 3.53026   0   0 255
-1.82925  10.1429 -5.85435   0   0 255
-7.64214  10.6925 -6.27999   0   0 255
-5.33963  10.3591  2.68519   0   0 255
-4.81127  9.84387  2.29766   0   0 255
-8.09949   9.5216  4.81899   0   0 255
-0.0455195    10.8938  -0.199719   0   0 255
 -10.267  10.7721 -2.71922   0   0 255
5.09908 9.69296 4.30037   0   0 255
9.71544 9.34099  1.9728   0   0 255
-1.80518   10.148  2.72542   0   0 255
0.744044   10.064 -6.24723   0   0 255
  10.2041    9.7342 -0.279265   0   0 255
-7.54147  9.61789  2.95115   0   0 255
 10.9119  9.91311 -6.37545   0   0 255
-10.0605  8.98089  1.32986   0   0 255
 -4.69116   9.83577 -0.462607   0   0 255
4.28797 10.0809 1.62692   0   0 255
9.28595 10.5286 1.99909   0   0 255
  1.0871  10.1227 -2.94776   0   0 255
-8.26469  9.65872  3.11466   0   0 255
 -5.9871  10.1131 -1.12794   0   0 255
10.2709 9.86218 -3.6853   0   0 255
 3.17439  10.6184 -3.14024   0   0 255
-4.01657  9.07093  1.11693   0   0 255
0.770873  9.67538  4.62152   0   0 255
-9.92083  9.35242  4.43143   0   0 255
-2.56749  9.86751  4.53461   0   0 255
3.98935 10.8172 1.79298   0   0 255
1.43519 10.9014 -7.3346   0   0 255
-4.04235  10.3886  3.99641   0   0 255
 3.4293 10.1474 4.48595   0   0 255
-0.0806049     9.5722   -5.47226   0   0 255
-6.82718  10.0749 -4.47376   0   0 255
   1.74107    9.55407 -0.0931649   0   0 255
-1.22485  9.73514 -6.46977   0   0 255
-10.569 8.16674 9.99738   0   0 255
-8.75361  10.0787 -3.99143   0   0 255
  -0.75631    11.0269 -0.0828052   0   0 255
 9.32194   10.447 -4.73952   0   0 255
0.955958  9.51304 -3.70671   0   0 255
-0.626329   9.47795   2.65005   0   0 255
 4.43938  10.4671 -4.46904   0   0 255
 -5.38492   10.0281 -0.705027   0   0 255
 6.6772  10.451 7.88455   0   0 255
-3.56228   10.187  5.15642   0   0 255
-6.05801  10.3073 -7.85752   0   0 255
3.27015 9.97105 1.40906   0   0 255
6.74921 10.4356 5.79052   0   0 255
-4.11723  9.82555 -1.33814   0   0 255
-2.25639     9.59  3.40435   0   0 255
-5.23878  10.8037 0.365876   0   0 255
 5.45217  9.75713 -7.50043   0   0 255
2.97708 9.89392  1.5026   0   0 255
5.77421 9.98826 7.18985   0   0 255
4.30948  11.244 -7.6128   0   0 255
0.580232   10.565 -3.47401   0   0 255
-4.7134 9.67048 1.54239   0   0 255
 4.37864   10.872 -3.79958   0   0 255
0.735227  10.6749 -6.82775   0   0 255
-0.503126   10.1037     7.845   0   0 255
 -2.31287   10.3947 -0.283238   0   0 255
 8.8559 9.87044 5.40915   0   0 255
 8.17288   9.4739 -6.17826   0   0 255
 4.8178 10.6693 4.97539   0   0 255
4.41111 10.5973  7.2532   0   0 255
-9.79722  9.26492 -3.50047   0   0 255
-4.18311  9.98863 -6.52616   0   0 255
8.24249 10.6411 5.67476   0   0 255
 9.98554  9.47406 -2.05446   0   0 255
 5.75298  10.4005 -5.35041   0   0 255
5.24718 10.1281 7.42976   0   0 255
7.56073 9.45051 6.95375   0   0 255
1.40287 10.0632 5.48447   0   0 255
-8.42111  9.58225 -6.06362   0   0 255
-3.51735  10.6292 -1.52776   0   0 255
 7.72262  9.70473 -4.91496   0   0 255
0.515758  10.3949  4.82173   0   0 255
4.47761 10.6239 -3.4655   0   0 255
 3.92369  9.78412 -1.22121   0   0 255
2.50901  10.536 1.04033   0   0 255
1.07319 9.84077 7.36444   0   0 255
6.58834 9.85941 5.22312   0   0 255
2.89872 9.98254 -4.3618   0   0 255
 3.86117   10.453 -3.10979   0   0 255
-7.62388  10.4406  5.00819   0   0 255
-9.02838  8.74677  9.91288   0   0 255
 1.10975   9.3307 -4.39381   0   0 255
0.0264277   10.0955  0.520129   0   0 255
 7.37071   9.9843 -2.28734   0   0 255
 5.22428  9.45526 -3.78519   0   0 255
-7.7682 10.3049 3.68472   0   0 255
-0.15009  9.94062 -1.00669   0   0 255
 -7.39521   9.95171 0.0645949   0   0 255
-10.3906  9.85817 -8.72795   0   0 255
0.326998  8.84228  4.39649   0   0 255
6.76145 9.59841 7.13379   0   0 255
-3.12347  10.8643  -2.5369   0   0 255
-2.63071  10.0545 -6.73957   0   0 255
 7.60406  10.0655 -5.23907   0   0 255
 -2.71919   9.15879 -0.945736   0   0 255
-9.83004  9.17248  1.60502   0   0 255
-4.40861  9.81372 -7.90436   0   0 255
10.7051  8.9823 0.65344   0   0 255
-2.78906  9.76569  2.64043   0   0 255
 1.07715  9.70293 -1.83862   0   0 255
 7.9483 9.91971  7.2609   0   0 255
 9.76218  9.55366 -3.74003   0   0 255
-2.93599  10.4011 -5.05682   0   0 255
3.31441 10.1403 8.10683   0   0 255
-0.0183603    9.69491   -5.23341   0   0 255
 1.67301   10.937 -4.16419   0   0 255
 3.17568  10.3712 0.360255   0   0 255
-3.64957  10.5964  4.92513   0   0 255
   2.12288     9.4253 -0.0609569   0   0 255
 8.34652   10.675 -5.10156   0   0 255
-0.688589   9.86245   2.92875   0   0 255
 5.18481  10.2179 -4.91158   0   0 255
1.35957 10.3575 3.97796   0   0 255
-3.92646     9.52  1.62559   0   0 255
-2.61724  10.3024 -4.27334   0   0 255
-3.25182   9.7759  7.20589   0   0 255
6.36697 9.24768 3.79072   0   0 255
 -8.63949   9.08238 -0.698386   0   0 255
 3.8169 9.60143   3.578   0   0 255
0.739772  9.87086   3.9225   0   0 255
-7.21922  10.1961 -2.22248   0   0 255
-10.052 10.2589 6.96345   0   0 255
 -7.27908   10.9124 -0.961929   0   0 255
9.50285 8.83335 3.99952   0   0 255
 8.90226  10.0654 -4.90466   0   0 255
-0.0994077    9.97109    2.33032   0   0 255
1.43796 9.40086  6.0404   0   0 255
-6.58685  10.5648  5.42839   0   0 255
 3.58963  9.50043 -7.14211   0   0 255
 5.6399 10.2622 1.57074   0   0 255
0.14959 9.93495 6.53064   0   0 255
5.86983 10.2521 5.65408   0   0 255
 6.50202  9.81516 -3.08964   0   0 255
0.359975  10.3571  5.49276   0   0 255
10.0988 10.2555 5.99835   0   0 255
-10.0768  9.73886  2.18289   0   0 255
 8.14115  9.93931 -5.44105   0   0 255
 -7.8879  9.61302 -3.43477   0   0 255
-4.10562  9.75942  2.28867   0   0 255
0.183411   10.687  2.81169   0   0 255
  6.87494   10.4197 -0.647398   0   0 255
 3.44362  10.3445 -3.57812   0   0 255
6.83448  10.412 2.57631   0   0 255
 2.20505  9.86076 -4.39589   0   0 255
10.5728 9.49508 4.84709   0   0 255
9.07589 9.38168 6.77695   0   0 255
 7.23013    10.07 -4.31673   0   0 255
 1.59664  9.68891 0.743824   0   0 255
 9.70578  9.90517 -5.49681   0   0 255
 9.97611  9.50861 -4.93328   0   0 255
7.63791 9.89314 2.40252   0   0 255
-7.24636  9.63421  4.78715   0   0 255
6.69208 9.41871 -6.9221   0   0 255
 7.05748  9.99938 -3.22905   0   0 255
1.23948 9.70315 5.94562   0   0 255
-1.42236  10.7204 -7.18659   0   0 255
 -2.71797   9.61366 -0.604399   0   0 255
-5.07612    9.261  1.98441   0   0 255
 1.22057  9.75637 0.314688   0   0 255
-8.7503 9.41748 2.47785   0   0 255
-10.5145  9.99247 -7.73391   0   0 255
-7.11216  9.48058 -5.73911   0   0 255
 2.1421  9.8369 -7.1181   0   0 255
5.16711 10.7663 4.04461   0   0 255
-10.2968   9.6745 -2.62852   0   0 255
-5.93619  10.3377  -3.4467   0   0 255
2.64224 9.40698 8.32693   0   0 255
-5.77523  10.1905  -1.4985   0   0 255
 -9.68966   8.81988 -0.559428   0   0 255
-1.08597  10.0603 -5.94431   0   0 255
-2.67006  10.1901  2.93687   0   0 255
-2.72762  9.81184  1.74533   0   0 255
-9.03069   9.9881  10.4252   0   0 255
8.47948 9.18258 6.15576   0   0 255
-9.87242  10.2315  4.15531   0   0 255
  -3.64978    9.98542 -0.0307977   0   0 255
-8.37514   9.9629  1.21634   0   0 255
-4.93022  9.77381 -3.15621   0   0 255
-5.48175  9.98974 -7.10779   0   0 255
-5.63965  8.87044  5.33784   0   0 255
-9.28441  10.2006 0.288487   0   0 255
0.0535615   9.53409  -5.49352   0   0 255
2.51981 10.3589 6.83405   0   0 255
 7.50811  10.0617 0.712594   0   0 255
 8.12624  9.24294 -2.75529   0   0 255
-6.56736  9.86853 -2.35825   0   0 255
-1.73434    9.902 -5.74627   0   0 255
2.41595 9.89151 -6.4314   0   0 255
2.49617 10.0256 7.27029   0   0 255
-0.0210428    10.0944     7.4178   0   0 255
-6.88575  10.5768  4.28842   0   0 255
-0.857038   10.0142   3.71941   0   0 255
-8.1966 10.1368 2.69491   0   0 255
8.81675 8.85691 11.1301   0   0 255
 7.9839 9.89464 5.34542   0   0 255
-1.94345  10.0161  4.04174   0   0 255
 2.52768  9.24897 0.619905   0   0 255
-4.91904  9.42201  7.39414   0   0 255
-4.17838  10.4873  7.48016   0   0 255
 1.59855  10.5951 -5.54162   0   0 255
-6.05619  9.78928 0.656811   0   0 255
-6.12846  10.6393   1.8818   0   0 255
 2.83282  10.3883 -6.65372   0   0 255
-0.282012    9.2568    4.4573   0   0 255
-1.97683  9.38771 -4.44944   0   0 255
-3.23086  9.66241  4.69989   0   0 255
   6.249  9.99608 -2.52716   0   0 255
4.26963 9.69698 6.26253   0   0 255
-7.73018  9.28309  4.39085   0   0 255
-9.56575  9.78629  5.05463   0   0 255
 0.432871   10.2269 -0.301337   0   0 255
 3.53214  9.67977 -5.89029   0   0 255
-4.22537  10.3753 -6.59855   0   0 255
-7.52223  10.1514  2.00457   0   0 255
-2.33828   10.118  4.42813   0   0 255
 9.52522   9.2029 -3.51834   0   0 255
 7.27531  10.0191 -6.25907   0   0 255
 7.15044  10.8173 -5.65033   0   0 255
 -8.5221  9.76913 -4.99227   0   0 255
9.39655 9.16845 1.77406   0   0 255
  3.18581   9.37314 -0.781855   0   0 255
  3.72153   10.3362 -0.581677   0   0 255
-5.98792  10.1765 -6.23071   0   0 255
 7.57358  9.93224 -7.28226   0   0 255
 10.0657  8.14238 -6.55978 255 255   0
  10.2401  -1.68637 -0.983947 255 255   0
9.85928 1.38015 8.29063 255 255   0
 10.2405 -4.90695  6.04735 255 255   0
  10.401 -8.70226  5.65307 255 255   0
 9.88558  1.47142 -1.97102 255 255   0
 10.2602 -7.34484 -1.14076 255 255   0
  9.35729  0.796973 -0.997139 255 255   0
 10.5168  1.02944 0.258789 255 255   0
 10.0406 -10.2742  6.45708 255 255   0
 9.02286 -5.92478 0.857941 255 255   0
 10.3261 -4.93483  -6.9394 255 255   0
 9.54906  3.53203 -1.77409 255 255   0
 9.37471  1.08985 -6.18806 255 255   0
9.81819 8.34426 -6.8783 255 255   0
 10.4454  4.46632 -2.61976 255 255   0
 9.93767 -9.53849 -4.89216 255 255   0
 11.0094 -5.01523  9.19812 255 255   0
 9.97867 -4.84829  5.09135 255 255   0
 10.5992  4.89892 -6.02601 255 255   0
9.86179 4.14437 2.05662 255 255   0
 10.2327  6.57513 -3.92343 255 255   0
 10.2669 -4.37583  7.96146 255 255   0
 9.36686 -3.62539 -4.74333 255 255   0
 10.3671 -3.46398  2.97418 255 255   0
    9.28 -9.40891  4.95864 255 255   0
10.3716 4.57928  2.4007 255 255   0
 9.23656 -8.66881 -6.81662 255 255   0
 9.93114 -0.99007 -10.6309 255 255   0
 10.1346  3.13472 -4.33952 255 255   0
 10.1269 -3.13453 -5.84103 255 255   0
  10.4583 -0.520348  -1.90551 255 255   0
 9.75487 -9.04905  5.88791 255 255   0
  10.019  7.75327 -5.60371 255 255   0
 10.775 0.35443  5.1918 255 255   0
 9.82902 -3.46476  3.93052 255 255   0
  10.315  3.50562 -6.11071 255 255   0
 9.99368 -8.45238 -2.20825 255 255   0
 9.48919 -7.10975 -10.9914 255 255   0
 10.0002  6.03968 0.676718 255 255   0
 10.2586 -8.83859  8.10054 255 255   0
 9.84886 -8.42984 -5.76978 255 255   0
 9.35769 -9.66691 -1.35412 255 255   0
 10.2364  4.62702 -2.99166 255 255   0
  9.7154 -1.34869  3.74965 255 255   0
 9.36593 -8.64549 -1.63859 255 255   0
 9.20396 -3.13759   6.7947 255 255   0
 9.87309  6.54894 -2.69499 255 255   0
  9.75932  -3.05469 0.0181176 255 255   0
 10.0775 -3.38922 -10.3774 255 255   0
 9.35343 -2.86485 -5.80766 255 255   0
10.5003 3.66815 1.87898 255 255   0
 9.31801 -6.09813  8.42483 255 255   0
 10.3886 -6.11542  4.68117 255 255   0
 9.90234  4.48945 -6.25227 255 255   0
  10.9272 -0.801097   6.20165 255 255   0
 10.1306 -6.14885  6.82031 255 255   0
9.70374 -9.7418 1.57046 255 255   0
10.0706 2.32504  5.1369 255 255   0
 9.79688 -7.36371 -2.88512 255 255   0
 9.57823 -9.98882  6.83508 255 255   0
10.0179 6.79418 8.61897 255 255   0
 9.8028 5.02265 2.52668 255 255   0
 10.7717 -9.34559  9.07257 255 255   0
  10.0576 0.0900171  -3.26417 255 255   0
9.64479 2.63061 0.22486 255 255   0
 8.65211 -9.30385 -1.58973 255 255   0
 9.38896 0.743527 -2.98116 255 255   0
9.94972 3.64751 -2.2458 255 255   0
  9.7836 -9.70878 -4.28015 255 255   0
  9.8907 -9.55815 -2.85689 255 255   0
   9.57111   -5.26932 0.00741681 255 255   0
 9.81161  7.01286 -4.58842 255 255   0
 10.6441 -9.10685  6.54902 255 255   0
  8.7085 -10.3339 -7.68333 255 255   0
10.1013 6.75683  8.3331 255 255   0
 10.0886 -6.09336 0.925937 255 255   0
 8.76643 -7.56688  7.64821 255 255   0
9.46535 1.59102  3.1503 255 255   0
  10.522 -3.89781  8.82022 255 255   0
 9.63811  1.27578 -3.52728 255 255   0
 10.7554 -2.67216  -3.9632 255 255   0
 10.0978  5.32694 -10.0594 255 255   0
   10.0445 -0.0707962    4.47233 255 255   0
 9.96257 0.574105   4.8179 255 255   0
 9.76931 -9.11252 -7.84295 255 255   0
   10.7652 -0.0274407    5.17668 255 255   0
10.0398 -4.6106 6.05557 255 255   0
 10.9706 -3.69048   8.9701 255 255   0
 10.1597 -7.26484   2.8907 255 255   0
  10.283 -9.18137  -7.1683 255 255   0
  9.6992 -1.11104 -2.89912 255 255   0
 10.6922 -1.33881 -6.72203 255 255   0
 9.83824  6.87028 -5.16611 255 255   0
9.66304 5.10597 6.17547 255 255   0
 10.2786 -8.88945  4.13334 255 255   0
9.99201 1.93065  4.9585 255 255   0
 9.35656 0.792055  5.80576 255 255   0
 10.2517  8.75468 -10.0296 255 255   0
 10.0877 -9.93196 -2.91857 255 255   0
 9.81934  4.32643 -4.07836 255 255   0
 10.4965 -2.17934 0.632388 255 255   0
10.6622 3.72978 4.38654 255 255   0
 9.75858 -2.59439 0.334839 255 255   0
  10.464 -4.15429 -7.45819 255 255   0
 9.84546 -2.57128  4.73586 255 255   0
  9.71423 -0.253636  -1.30875 255 255   0
10.1505 1.79705 -2.0832 255 255   0
10.5607 -2.6858 7.56501 255 255   0
 10.0183 -3.06546 -4.31062 255 255   0
   10.4 6.61278 7.07959 255 255   0
 9.21035 -1.93323 -7.67488 255 255   0
 9.23946 -1.74824  1.54469 255 255   0
9.98009 2.10653 1.29784 255 255   0
  9.56899  -1.09986 -0.752774 255 255   0
  9.1434 -9.64031  2.76168 255 255   0
 9.90985  8.31977 -2.54831 255 255   0
 9.36722 -2.30189   1.6507 255 255   0
 10.5566 -1.09092   2.8549 255 255   0
 10.0073 0.909188  5.22349 255 255   0
 9.74802  2.79362 -1.07894 255 255   0
 9.84058   8.5474 -7.21921 255 255   0
 9.56981 -2.53282  3.78918 255 255   0
 9.84856 -9.87413  5.29962 255 255   0
 10.4757 0.832252  8.61912 255 255   0
 9.72377  1.21425 -3.97542 255 255   0
 10.6993 -10.2731  7.87767 255 255   0
 9.60873 -3.53407 -2.35933 255 255   0
10.1986 6.25357 2.57185 255 255   0
  10.3678 -0.179209  -4.05758 255 255   0
9.79809 2.09187 7.11392 255 255   0
 10.3727  7.94863 -5.25695 255 255   0
10.1516 5.76718 6.66111 255 255   0
 10.3177 -3.69539  5.40014 255 255   0
 10.3616  6.05044 -3.98591 255 255   0
 10.0255 -5.05702  7.18112 255 255   0
 9.68439 -7.65143 -4.24139 255 255   0
    10.01  -1.16001 -0.863138 255 255   0
 10.3117 -8.52742  7.93284 255 255   0
10.4993 8.08232 6.72976 255 255   0
  10.0969  0.735728 -0.341226 255 255   0
 8.87653  -9.4574 -4.44059 255 255   0
 9.08054 -4.60955 -1.63509 255 255   0
 10.3608 0.656957 -4.41245 255 255   0
9.58886 3.47549 -7.3023 255 255   0
 9.11231 -6.03245  6.72536 255 255   0
10.5883 4.53826 5.77894 255 255   0
   11.16 -2.91338 -4.72627 255 255   0
 9.30437 -10.2574 -4.08911 255 255   0
10.3179 7.15536 5.25458 255 255   0
 9.68118 -5.16838 -3.50957 255 255   0
 9.81236 -5.54871  7.31836 255 255   0
 10.7045 -2.85345 -5.41058 255 255   0
 10.1798 -8.03371  2.45373 255 255   0
9.74012 4.78589 7.64452 255 255   0
10.6079 5.02905 6.83656 255 255   0
 10.3374  -1.0303 -2.25363 255 255   0
  10.1567 -0.377259  -4.24051 255 255   0
10.5128 1.37245 6.60001 255 255   0
 11.1893  1.74666 -4.13081 255 255   0
9.99067 -6.4756 1.49545 255 255   0
 10.8719   2.0864 -4.42012 255 255   0
 10.6984 -5.85893 -1.55229 255 255   0
 10.1379 -3.77337  4.68262 255 255   0
9.82369 5.27434 7.20291 255 255   0
 9.84223  2.84607 0.939727 255 255   0
 10.4754 -3.16043 -6.87747 255 255   0
 9.97472  1.92814 -6.13061 255 255   0
 10.1252 -9.60712  2.09206 255 255   0
 10.5211 0.260062  3.91948 255 255   0
 9.83877 -4.76261   6.8264 255 255   0
 10.2536 -2.45874  1.04038 255 255   0
  10.227 -4.84987  3.30034 255 255   0
9.89116 7.50306 6.61835 255 255   0
9.77748 1.90903 1.01869 255 255   0
 9.46427 -1.20368  8.27394 255 255   0
 10.0872 -9.57008 -2.95982 255 255   0
 9.84656   8.3656 -1.62891 255 255   0
 9.86715 -7.15073 -1.72762 255 255   0
 9.42256  -4.6826 -3.25234 255 255   0
 9.19046 -9.58781  2.57846 255 255   0
9.19986 -4.0394 5.93995 255 255   0
 9.33204 -7.32932 -6.31144 255 255   0
 10.2445 -8.94946 -6.10808 255 255   0
 10.8688 -4.72813  8.74732 255 255   0
10.7236 8.27042 5.15884 255 255   0
 10.0432 -9.56919  8.74551 255 255   0
 9.86583 -6.14938  8.21138 255 255   0
 9.32379 -3.11932 0.911326 255 255   0
   9.5558 -0.904613  -1.20267 255 255   0
 9.24729 -5.44075  7.99867 255 255   0
 10.1324 -6.27882  6.16747 255 255   0
  10.2561 -0.356937    4.3778 255 255   0
 10.251 8.14607 7.61793 255 255   0
10.1358 8.71771 -4.1763 255 255   0
  10.0331 -0.923263  -7.83806 255 255   0
10.0558  1.0589 7.75755 255 255   0
 10.2946  2.39069 -4.09954 255 255   0
 9.79218  7.85119 -3.57078 255 255   0
 10.3757  4.69099 -2.63559 255 255   0
 9.99713 -5.99495  1.84022 255 255   0
 9.88924 -3.05431 -3.95398 255 255   0
 9.57321  5.10984 -7.11046 255 255   0
  9.41715 0.0435108  -7.80444 255 255   0
  8.65562  -9.57086 -0.235461 255 255   0
  9.43184   0.82946 -0.410358 255 255   0
 10.0871 0.145845 -10.2224 255 255   0
 10.4649 -2.50894  8.06532 255 255   0
 10.1396 -5.58504 -2.73116 255 255   0
 9.52729 -8.91023 0.191572 255 255   0
 10.3222 -9.92689 -6.38554 255 255   0
10.5619  1.3797 8.60763 255 255   0
 9.61509 -1.79315 0.334185 255 255   0
 10.2996 -4.14955 -6.04109 255 255   0
10.5291 3.39433 5.68966 255 255   0
 9.89564 0.171509  6.09016 255 255   0
 9.61258 -5.48447 0.608812 255 255   0
 10.6472 0.604141  1.64222 255 255   0
 8.83236  -8.5348 -10.5151 255 255   0
 9.91772 -6.52507 -2.84881 255 255   0
 9.24696 0.440747 -10.2207 255 255   0
 9.16056 -2.07635  7.83843 255 255   0
 9.55912 -5.75337  -2.2945 255 255   0
 10.0161 -5.50789 0.925263 255 255   0
 9.87326 -2.31187  6.30422 255 255   0
 10.5261  1.29558 -3.51846 255 255   0
 9.26309 -7.22956   5.8885 255 255   0
 10.0613 -8.55683  2.66784 255 255   0
 9.48957 -9.75017 -0.34616 255 255   0
 10.4043 -1.24871  4.88597 255 255   0
 9.76356  -6.8376 -5.95234 255 255   0
  10.0179  -6.53812 -0.969494 255 255   0
 9.55857 -3.70461 -4.44928 255 255   0
 11.1673  6.31791 -6.97779 255 255   0
9.83509  2.4734 1.25259 255 255   0
  9.9362 -4.53909 -3.95905 255 255   0
 9.64637 -2.91039 -5.37693 255 255   0
 10.1911 0.307004  3.55278 255 255   0
 9.91371 -1.91697 -6.76828 255 255   0
10.3316 2.24709 1.24917 255 255   0
 10.5168 -3.10552 0.886711 255 255   0
 10.3855  5.48821 -6.42867 255 255   0
 9.87677 -1.56132  1.26232 255 255   0
10.0316 7.40483 2.60781 255 255   0
 10.4183  4.05976 -2.76331 255 255   0
 9.66782 -1.95687 -7.13359 255 255   0
 9.77088  4.29587 -10.1334 255 255   0
9.67527 5.59484 5.13427 255 255   0
 9.73467 -9.87014  9.02428 255 255   0
  10.5701 0.0802404  -1.09598 255 255   0
 10.6578  5.59881 -3.29037 255 255   0
10.0388 3.93434 2.57095 255 255   0
 9.78861  8.58501 -1.61108 255 255   0
 9.28461 -6.20212 -2.74872 255 255   0
 10.3467 -10.5426 -2.81366 255 255   0
9.72713 4.29993 7.87561 255 255   0
 9.88566 0.150016  4.09404 255 255   0
9.92318 1.76959 5.02464 255 255   0
 9.25654 -1.46883  1.88354 255 255   0
 10.4222 -7.67069  6.85207 255 255   0
 10.3419 -3.01233  4.35481 255 255   0
 9.14431 -4.85603 -11.0976 255 255   0
  9.8007 -7.68195 -4.89661 255 255   0
9.91629 8.45281 4.84766 255 255   0
  10.1253 -0.316006  -7.01518 255 255   0
9.98369 3.42007 7.38716 255 255   0
9.83291 6.09459 2.79855 255 255   0
 10.283 3.86098 1.40632 255 255   0
10.5262 5.47164 5.62413 255 255   0
9.88801 -7.9076 7.19917 255 255   0
 10.2843 -9.65786  3.83509 255 255   0
  10.7322  -9.90095 -0.259214 255 255   0
  10.2886   1.12018 -0.780371 255 255   0
 10.3857  -8.0269 -3.54361 255 255   0
 9.59181 -6.01079 -5.72847 255 255   0
  9.86561 -0.131979  -2.64737 255 255   0
9.83771 8.66585 2.87876 255 255   0
  10.898 0.522898 -7.64907 255 255   0
  9.4077 -11.0448  5.72909 255 255   0
 9.9867  8.0962 2.64618 255 255   0
9.71739 0.16931  6.2761 255 255   0
 10.4663 -10.3793 -7.15105 255 255   0
 9.89005 -6.52297  1.94674 255 255   0
 9.10548 -10.4111 0.737141 255 255   0
 9.18499 -9.29952 -10.8563 255 255   0
 10.1772  3.24315 -7.72452 255 255   0
  9.7831 -8.88253  1.39938 255 255   0
 9.33061 -6.49559  3.18077 255 255   0
 10.6623 -2.60282 -5.60856 255 255   0
   9.9223   5.90526 -0.192738 255 255   0
 10.3566 -5.99152  7.36673 255 255   0
10.1537  7.5872 8.85353 255 255   0
 9.74046 -8.81669  3.21391 255 255   0
  9.65859  -1.54467 -0.671593 255 255   0
 9.93234 -8.73606  -7.6054 255 255   0
 9.89132  -2.2633 -7.74222 255 255   0
  10.176  7.18341 0.739737 255 255   0
10.8092 7.96634 2.57337 255 255   0
 10.2896 -3.94984 -6.16554 255 255   0
 9.92942  3.91279 -1.05574 255 255   0
 9.84433 -7.14494  2.02678 255 255   0
 10.2436 -3.50186 -1.57583 255 255   0
 10.3998 -6.41043  3.65727 255 255   0
 9.64772 -2.51875 -1.09587 255 255   0
10.4474 -5.7392 5.99187 255 255   0
  9.8649 -7.59324   7.1594 255 255   0
9.96635 1.83686 5.35418 255 255   0
 9.62828 -8.31905  1.10399 255 255   0
   10.261 -0.427115   -2.2108 255 255   0
  9.48562 -0.452517   0.84802 255 255   0
 10.2984  1.81507 -6.14909 255 255   0
 11.0149 -2.08544  6.72292 255 255   0
 10.4413 -9.33882 -5.55866 255 255   0
 10.0298 -1.99659  2.23591 255 255   0
 8.57135  -10.272 -6.05305 255 255   0
  9.6334 -8.41384  3.43324 255 255   0
 8.84886 -10.6465 -8.16134 255 255   0
10.2276 1.93761 8.18482 255 255   0
9.77029 -5.6592 2.60968 255 255   0
   10.854 -0.859248   4.00191 255 255   0
 10.0434 0.273194  -2.9432 255 255   0
  10.61 6.90022 -5.7597 255 255   0
10.7593 1.29912 7.05503 255 255   0
10.5954 -4.9663 8.22943 255 255   0
  10.7719   4.23396 -0.729685 255 255   0
 10.0212 -8.42527 -6.67654 255 255   0
 10.3267  5.20108 -2.46058 255 255   0
 10.3117 -7.45529  8.81249 255 255   0
 10.0244    5.761 -5.13375 255 255   0
 10.1108 -8.51936  3.36643 255 255   0
 10.036 2.36683 6.11634 255 255   0
10.0637 6.32189 4.79475 255 255   0
 9.86843 -8.96825  1.38881 255 255   0
  10.3618 -0.350076   4.56956 255 255   0
10.7691 8.26004 7.37405 255 255   0
 10.1392 -5.43581  9.15705 255 255   0
 10.1449 -3.60261 -5.60831 255 255   0
  10.6233   3.29036 -0.968722 255 255   0
9.77663 4.09768 3.66507 255 255   0
 10.4717 -2.79777  3.07783 255 255   0
 9.65645 -9.66216 -4.66558 255 255   0
 10.0907 -4.60645  8.95813 255 255   0
 10.3274 -7.42048 -7.06542 255 255   0
 9.99675 -1.74801  1.30632 255 255   0
9.89687 6.88309 -4.0522 255 255   0
 9.93633 0.132345   6.8261 255 255   0
 10.1818 -3.85034  6.19494 255 255   0
 8.84583 -9.44321  5.97724 255 255   0
 9.77267 -9.04984 -4.16194 255 255   0
 9.94969 -8.55357  3.27554 255 255   0
  10.008 -9.83691 -3.74714 255 255   0
 10.5096   6.2874 -3.15845 255 255   0
  9.7528 -6.11896  4.08748 255 255   0
 10.3132  1.46622 0.696581 255 255   0
 9.90179  6.98042 -2.58083 255 255   0
  10.43 5.70671 2.55137 255 255   0
 9.85121 -6.63822 -10.5044 255 255   0
 10.7124 -5.82802 -1.28436 255 255   0
 10.4652 -6.84576 -1.87177 255 255   0
   9.91045 -0.0164134    5.89059 255 255   0
9.92022 5.86792 6.07911 255 255   0
 9.89901 -9.15009   3.4411 255 255   0
10.7764 8.12526 7.52037 255 255   0
 10.7339 -1.22353 -5.99034 255 255   0
 8.95958 -9.89278 0.120775 255 255   0
 10.1989 -1.90308 -4.77501 255 255   0
 10.3915 -9.91868  4.68867 255 255   0
 10.5415 -9.33537  2.58096 255 255   0
 10.4371 -7.66409 -1.24355 255 255   0
9.91963 8.29296 8.52497 255 255   0
 9.57527 -9.51208  2.38393 255 255   0
 9.82894 0.935346  6.31445 255 255   0
 9.44172 -1.12252  6.52158 255 255   0
 10.6497 -1.00118  1.81272 255 255   0
 9.87801  -4.5031 -7.31182 255 255   0
 10.4051  2.42514 -1.89402 255 255   0
 9.33418 -4.88713 -10.3008 255 255   0
10.2063 5.98204 2.78935 255 255   0
10.5388  0.6121 4.92838 255 255   0
10.2808 2.24665 -4.3044 255 255   0
9.72439 5.19782 4.09999 255 255   0
 9.61823  1.21721 -3.26468 255 255   0
 9.40779 -8.51066 -5.40911 255 255   0
10.6231 2.26038 3.08938 255 255   0
9.99411 -4.6871 1.15395 255 255   0
 10.1242 -9.32849  4.21475 255 255   0
 10.0216 -10.2933   7.9557 255 255   0
9.78258 8.04844 3.99856 255 255   0
  10.495 -5.59933  8.36943 255 255   0
 10.4615 -7.28892 0.136867 255 255   0
10.2116 -10.393 6.34456 255 255   0
  11.2305   1.40892 -0.240385 255 255   0
   10.327 -0.546793   -6.9463 255 255   0
 10.0823 -4.17057  4.85866 255 255   0
 9.77127  3.75931 -4.39779 255 255   0
 10.5765  3.69646 -1.74208 255 255   0
  10.042 -1.36981  7.03999 255 255   0
  9.19121  -4.37839 -0.750686 255 255   0
10.3257 3.07947 1.23543 255 255   0
  10.639  5.26796 0.974796 255 255   0
 10.1601 -6.57419 0.968911 255 255   0
 10.5308 -8.96523  -3.6673 255 255   0
 9.41764 -7.42941  7.68279 255 255   0
 10.3966 -5.60101 -5.56043 255 255   0
10.2595 2.80598 1.23691 255 255   0
 9.56251  3.40773 0.675481 255 255   0
 10.8082  2.65964 0.325433 255 255   0
 9.34232 -5.87235  2.52224 255 255   0
9.64585  3.2349 4.70059 255 255   0
10.2832 4.04246 1.31015 255 255   0
 9.50963 -5.32849 -7.95988 255 255   0
 10.0604 -7.16347  5.73597 255 255   0
 9.20059 -5.77939  -4.9155 255 255   0
  9.80988  -8.57725 -0.279207 255 255   0
10.0837 1.21811 1.47009 255 255   0
11.0686 6.31622 4.74682 255 255   0
 10.3441 -1.70775  5.73627 255 255   0
 10.3676  1.68137 -2.04255 255 255   0
10.0705 6.00305 6.39037 255 255   0
10.4245 8.39656  1.9817 255 255   0
 10.6391  6.61228 -4.51388 255 255   0
 10.4603  -3.2653 -4.06336 255 255   0
  9.87778 -0.802532   8.21421 255 255   0
 9.55532 -7.66213   6.2605 255 255   0
 10.3299 -8.95022  4.83252 255 255   0
 9.62972 0.453876  1.72559 255 255   0
 9.84255 -2.51697   7.0125 255 255   0
 10.2153  6.42213 -5.69095 255 255   0
 9.71564 -6.10322  2.10237 255 255   0
 10.2994 -5.00704 -1.41265 255 255   0
 9.87308 -3.99767  7.21583 255 255   0
 10.2588 -6.03123 0.954331 255 255   0
 9.17315 -6.37418  2.00001 255 255   0
 9.80853 -1.91934 -5.63597 255 255   0
 9.50878 0.753456  1.83233 255 255   0
10.4304 4.12472 2.43831 255 255   0
 10.2246 -2.57652  -7.2749 255 255   0
 10.0135 -4.94359  3.25009 255 255   0
 10.6662 -3.92337 -5.45018 255 255   0
 10.3577 -7.38452  7.05661 255 255   0
 11.1297 -4.03256   8.1773 255 255   0
  9.83866   5.70628 -0.485268 255 255   0
 9.85086  -9.7136 -1.69791 255 255   0
10.8202 4.78978 8.21919 255 255   0
 10.5551  4.14702 -4.33271 255 255   0
 9.19108 -5.41902  9.03925 255 255   0
 10.6926 -1.74929  2.09365 255 255   0
  10.1478   2.42612 -0.131471 255 255   0
 9.61672 -5.48906  6.61934 255 255   0
  10.6368 -0.902634   5.20748 255 255   0
 9.79428 -7.24204  1.08794 255 255   0
 10.1192 -1.29205  2.84329 255 255   0
 9.78655 -6.16995 -7.37982 255 255   0
 10.6768 -8.18349  4.86204 255 255   0
 9.98289  4.91251 -6.14546 255 255   0
 9.9405 4.08847 4.76545 255 255   0
 9.90702 -5.69803  1.32301 255 255   0
 8.97565 -10.6595  -3.7366 255 255   0
 9.86205 -5.82583 -3.30331 255 255   0
 10.7841  8.05339 -3.00163 255 255   0
 10.6978 -10.7808 -1.10554 255 255   0
 10.3963 -4.34969    5.915 255 255   0
 10.7329 -9.38687  2.31458 255 255   0
9.42369 -6.1121 4.53897 255 255   0
10.1282 7.80795 2.82842 255 255   0
 10.179 -8.5502 5.43029 255 255   0
10.6207  4.1901 8.12201 255 255   0
 9.92975 -4.78728 -1.94663 255 255   0
 10.7895 -6.45025  8.47667 255 255   0
  9.26603  -6.38827 -0.504344 255 255   0
 10.2693 -7.19933 -1.10273 255 255   0
 9.74054 -4.64119  2.71413 255 255   0
 10.2077  2.70032 -5.15506 255 255   0
10.5778 1.65897 8.69844 255 255   0
 10.3868 -6.98133  2.12875 255 255   0
  9.58522 0.0793702  0.106703 255 255   0
 10.4274 -2.68746   5.7484 255 255   0
9.59537 4.01656 3.04944 255 255   0
 11.3539  8.20941 -5.61411 255 255   0
 10.0398 0.570478 -2.67687 255 255   0
  10.354 -8.16848  7.54103 255 255   0
 10.0614 -6.84769  6.90272 255 255   0
 8.86489 -9.89556 -3.30479 255 255   0
 9.18162 -2.67389 -4.90992 255 255   0
10.9595  6.6451 4.33914 255 255   0
 9.80917 -8.51941 -1.85792 255 255   0
  9.19401 -0.557245  -6.26902 255 255   0
9.98183 1.21693 8.65434 255 255   0
10.1256 7.57809 3.38174 255 255   0
 10.0056 -9.31147  8.62018 255 255   0
 9.95318 -5.21263  -6.1549 255 255   0
 9.74123 0.171002  3.96732 255 255   0
 9.87095 -4.43831  8.79413 255 255   0
9.94939 2.00893 8.04449 255 255   0
9.29637 -5.7122 4.49773 255 255   0
  9.5419 -9.65138  8.78866 255 255   0
 8.62705 -10.2829    -6.28 255 255   0
 10.2459  4.14115 -7.36424 255 255   0
 10.1728  1.96372 -2.91093 255 255   0
9.82107 4.72362 5.10046 255 255   0
   10.184  0.859307 -0.701999 255 255   0
 10.3928 0.356329  2.58796 255 255   0
  10.3682 -0.969263   5.39233 255 255   0
 9.85849 -1.79519  2.47681 255 255   0
 9.31541 -8.70957 -7.54066 255 255   0
  10.507  8.29997 -5.90217 255 255   0
9.98124 -5.9879 -4.9741 255 255   0
 9.60483 -3.49623 -5.51556 255 255   0
10.4415 2.24358 6.26411 255 255   0
10.1031 2.44482 7.90194 255 255   0
  9.78129    3.5455 -0.265607 255 255   0
 9.96445 -2.22984  8.35257 255 255   0
 8.97794 -8.37483 -6.11964 255 255   0
  9.82041  -3.99988 -0.554011 255 255   0
  10.1294  -9.40233 -0.389177 255 255   0
  10.5522   7.06972 -0.296744 255 255   0
  10.124 0.398852   1.6858 255 255   0
 9.56519 -4.93568  5.23289 255 255   0
 10.2317 -6.19761  5.15151 255 255   0
 10.1645  6.14328 -4.80438 255 255   0
10.1249 3.63082 4.52179 255 255   0
 10.5215 -5.08781  4.39916 255 255   0
 10.1819 -9.30563  1.92827 255 255   0
10.4701  2.1136  2.4631 255 255   0
 10.7543 -9.92075 -5.76774 255 255   0
9.84052 2.07635 5.49184 255 255   0
 9.87428 -9.11031  7.31287 255 255   0
10.5579 7.92928 8.54388 255 255   0
9.54704 1.63679  1.7504 255 255   0
 8.71571 -8.03528 -10.3593 255 255   0
 10.8764 -6.16743  8.93019 255 255   0
 9.84345 -9.54201  7.46538 255 255   0
  9.83239 -0.141934    1.7015 255 255   0
 9.95348 -9.72008  9.16903 255 255   0
10.1636 8.72982 2.63713 255 255   0
 10.2295 -10.1514 -1.25899 255 255   0
 9.66178 -10.3344  5.20327 255 255   0
11.2929 5.26894 7.46737 255 255   0
 10.1867 -2.26237  1.63663 255 255   0
 10.3194  2.76334 -7.17946 255 255   0
 9.35066 -10.0783  5.85693 255 255   0
  10.643  7.02597 -1.11829 255 255   0
 11.1395 0.201657  3.71699 255 255   0
  9.8908 -10.3653 -2.56075 255 255   0
 10.0481 0.355028  7.37888 255 255   0
 10.9782 -2.41874  4.34017 255 255   0
 10.2311 -1.36077 -1.48066 255 255   0
9.62551 0.46908 7.05077 255 255   0
 9.37121 -1.05978 0.420623 255 255   0
10.1933 3.06752 1.65765 255 255   0
 9.44772 -4.63525  5.97306 255 255   0
 9.62777 -2.76837  7.59106 255 255   0
9.86158 7.04632 7.17267 255 255   0
 10.3313  7.40677 -1.81524 255 255   0
10.0395 4.20687 7.22704 255 255   0
  10.6419 -0.138405 -0.631429 255 255   0
9.77328 1.37829 4.83225 255 255   0
9.58505 4.90562 7.74959 255 255   0
 9.54454  3.86235 0.882506 255 255   0
9.58871 3.62589 -1.3223 255 255   0
 10.0726 -7.69722  2.67129 255 255   0
  10.3115   3.09008 -0.206704 255 255   0
 9.8776 6.64124 2.98545 255 255   0
 9.54778 -9.87858  5.59765 255 255   0
 10.4508 -6.06619  7.55801 255 255   0
  9.9405 -7.26789 -7.37921 255 255   0
 10.2814  8.42428 -7.25255 255 255   0
 9.10412 -5.12115 -10.2716 255 255   0
  9.43992 -0.690097  0.843626 255 255   0
 9.73035 -2.66387 -7.37386 255 255   0
 10.7939  -7.2968 -7.54124 255 255   0
  10.3585 -0.269008    7.3279 255 255   0
 10.0541 -3.58288  6.62783 255 255   0
 9.83772 -4.51177  1.61744 255 255   0
  9.06306  -9.99209 -0.814189 255 255   0
 10.7124  6.81123 -2.13746 255 255   0
 9.57064 -1.43758  4.36946 255 255   0
10.7409 6.90689 7.83086 255 255   0
 9.74454 -6.52663  4.45608 255 255   0
 9.94848 -3.84785  0.76676 255 255   0
  10.357  3.41391 -6.70048 255 255   0
 9.79191 -7.91372  5.60778 255 255   0
  10.3407  -2.82391 -0.325944 255 255   0
 9.46435 -7.85733  4.56961 255 255   0
 10.1119  3.42545 -2.78178 255 255   0
   9.6266  -8.14953 0.0821389 255 255   0
 9.61163 -8.96888 -2.16269 255 255   0
 10.2349 -5.73278 0.746891 255 255   0
  9.4693  2.84727 -7.52668 255 255   0
 9.76025  3.76852 0.435581 255 255   0
  9.25069 -0.395377 -0.931799 255 255   0
9.96386 4.09315 3.30501 255 255   0
 9.57724 -1.23929    6.734 255 255   0
 9.48612 -9.44747 0.398176 255 255   0
9.71191 2.43518 5.02109 255 255   0
 10.3529 -8.18108  1.83376 255 255   0
  10.0074   3.37634 -0.750268 255 255   0
  10.1714 -0.323615   1.62717 255 255   0
 9.54876 -5.94696  7.12516 255 255   0
 9.91721  3.65658 -7.46032 255 255   0
 10.0834  2.97499 -3.16234 255 255   0
  9.40285 -0.728926   5.57707 255 255   0
 10.4428 -6.93733 -1.53946 255 255   0
9.81078 1.16363 8.00642 255 255   0
 10.2363 -7.79377  2.56492 255 255   0
 9.86154 -5.43052 -6.02046 255 255   0
 9.67511  1.31814 -1.13994 255 255   0
 10.2474  8.42632 -6.90571 255 255   0
 9.75386 0.240401  2.52983 255 255   0
 9.77659 -6.78008   2.6661 255 255   0
9.83082 8.95543  -1.615 255 255   0
 9.64085 0.495871 -4.60709 255 255   0
 9.49353 -6.56663  3.83814 255 255   0
 10.2742 0.941196  1.99947 255 255   0
 10.3857 0.323596  -1.3648 255 255   0
 9.81963 -7.17696 -1.01982 255 255   0
 9.54891 -1.83725  2.55144 255 255   0
 10.8536  -7.6223 -7.89137 255 255   0
 9.55073  2.41518 -6.72355 255 255   0
 10.8404  -4.0367 -7.15493 255 255   0
10.6783 7.07627 7.53844 255 255   0
 10.1812   2.6411 -7.48793 255 255   0
 9.45779 -3.31778 -6.00371 255 255   0
 10.0057  5.62696 -1.61074 255 255   0
 10.4392 -9.54503 -7.79534 255 255   0
 9.51225 -5.34245 -5.89957 255 255   0
 9.97957 -5.32532 0.628032 255 255   0
  10.283  3.24036 -6.85469 255 255   0
10.4586 3.69556 6.90064 255 255   0
 10.0831 -9.01273 -5.32624 255 255   0
 10.1401  8.97234 -6.35765 255 255   0
10.3148 6.39747 6.01069 255 255   0
  10.209 -1.21901  7.21614 255 255   0
 9.37964 -7.06641 -2.90052 255 255   0
 9.43921  3.32218 -1.99116 255 255   0
 10.1698 -7.51408 -5.89355 255 255   0
 9.45719  3.10073 -5.52376 255 255   0
 9.58262 -10.2359  3.49272 255 255   0
 9.87445   3.8126 -5.91844 255 255   0
  10.078 -5.91512  8.94157 255 255   0
 9.24026 -8.99093  9.15595 255 255   0
 9.63084 -1.21993 -6.52861 255 255   0
  9.62786 -0.833909  -4.56093 255 255   0
  9.22859 -0.996131  -2.48991 255 255   0
  10.651 0.111646  5.34223 255 255   0
 9.67539 -2.04021  7.10469 255 255   0
10.3538   3.366 7.14597 255 255   0
 9.57112  2.26243 -7.46476 255 255   0
10.0346 2.56274 8.75419 255 255   0
  10.0373   8.58156 -0.873768 255 255   0
  9.7674  -10.492 0.499905 255 255   0
 11.1841  3.79539 -5.91325 255 255   0
   10.4208  -0.576219 -0.0224551 255 255   0
 9.72982  5.93051 -5.97419 255 255   0
 10.0204  2.37062 0.262935 255 255   0
 9.93606 -4.31531 -2.89955 255 255   0
  10.0113   1.93122 -0.308747 255 255   0
 10.4206 -7.78177 -7.43486 255 255   0
 10.3453  2.17854 -4.83525 255 255   0
 9.65283 -2.79157  4.93968 255 255   0
 9.88413 -2.20975 -4.63608 255 255   0
   9.60776   -4.50809 -0.0746584 255 255   0
  10.305 -1.89389  7.07894 255 255   0
 10.7589 -3.89712   7.8044 255 255   0
 9.56651 -7.89813 -6.35307 255 255   0
 9.08028 -10.8639  -3.8279 255 255   0
10.7573 3.70365 9.06272 255 255   0
10.1984 -7.9023 2.20688 255 255   0
  10.139 -8.53508  9.15125 255 255   0
 10.4581  3.93715 -7.67145 255 255   0
 9.98935 -3.64324 -7.96647 255 255   0
 10.4454  -1.5921 0.716933 255 255   0
 10.0375 -5.14084  5.53851 255 255   0
 10.3148  8.28847 -4.83138 255 255   0
 10.0478 -9.03288 -2.40443 255 255   0
  9.87996 -0.193833  -2.60033 255 255   0
 9.89113  6.83214 -5.23554 255 255   0
 9.61256 -5.12305  5.15812 255 255   0
10.2293 8.25128 6.66424 255 255   0
  10.7527   6.47304 -0.876932 255 255   0
 9.94946  5.92026 -3.43212 255 255   0
  9.058 -8.8591 2.55296 255 255   0
 10.2313 -3.65398  3.16785 255 255   0
  10.833 0.275685  -7.0891 255 255   0
 10.0021 -9.32336 -4.54842 255 255   0
 10.0512  1.23238 -7.74802 255 255   0
 8.80384 -9.72951  -1.1911 255 255   0
 10.1012  1.52902 -3.34045 255 255   0
10.8571 2.62219 -1.2991 255 255   0
 10.0292  2.15938 -4.96994 255 255   0
 8.95674 -8.62563 -4.50522 255 255   0
 10.0525 -2.18405  4.28762 255 255   0
10.4069 3.43597 6.27124 255 255   0
 9.84104 -4.76358 -4.53583 255 255   0
  9.5848 -7.13422  2.23103 255 255   0
 8.95141  -7.9664 -1.70075 255 255   0
 9.65174 -0.85555 -4.79344 255 255   0
 9.99986  2.60986 -3.49053 255 255   0
  9.7734 -0.47485    6.186 255 255   0
 9.88517  6.95118 -6.34156 255 255   0
 10.7763  2.71918 -3.51359 255 255   0
10.2676 1.35909 -7.8492 255 255   0
 10.3595  9.03863 -3.64772 255 255   0
  9.6832 -1.00668 -4.88407 255 255   0
 9.65893 -1.93651  4.62031 255 255   0
 8.59682 -10.9045 -6.84192 255 255   0
10.8666 1.43316 8.56872 255 255   0
  9.9986 -2.42727 -3.68137 255 255   0
10.0192 -8.3842 3.39283 255 255   0
 8.86024 -8.75136  6.33881 255 255   0
 10.2489  2.70115 -2.05568 255 255   0
 9.37687 0.708841 -5.09903 255 255   0
 10.1444 -7.97339  7.76073 255 255   0
 10.4741 -1.94209 -2.77306 255 255   0
 9.77742 -9.61239   1.6144 255 255   0
 9.37829 0.968052  5.13611 255 255   0
 10.2771  4.42268 -1.04076 255 255   0
 8.96202 -10.8612  3.67692 255 255   0
 9.65314 -2.81783  1.42395 255 255   0
 9.33607 -2.84208   1.8192 255 255   0
 10.0827 -7.27513  2.54488 255 255   0
